ply
format ascii 1.0
element vertex 1618
property float x
property float y
property float z
end_header
0.634445 -5.079518 -1.492048
0.586289 -4.693964 -1.491500
0.544561 -4.359879 -1.491479
8.290297 -67.915596 -1.492920
4.164947 -34.119991 -1.500767
2.773165 -22.718264 -1.500085
2.076405 -17.010281 -1.499252
1.658811 -13.589275 -1.499314
1.372864 -11.246752 -1.491653
1.174108 -9.618502 -1.491417
1.025261 -8.399124 -1.491985
0.908889 -7.445778 -1.492050
0.815060 -6.677117 -1.491269
0.738659 -6.051227 -1.491716
0.674148 -5.522739 -1.490797
0.619793 -5.077457 -1.490929
0.572716 -4.691796 -1.490298
0.532384 -4.361383 -1.491479
8.100612 -67.938484 -1.492920
4.069652 -34.131489 -1.500767
2.709714 -22.725918 -1.500085
2.028896 -17.016012 -1.499252
1.620857 -13.593854 -1.499314
1.341453 -11.250542 -1.491653
1.147244 -9.621743 -1.491417
1.000870 -8.394133 -1.490596
0.888093 -7.448287 -1.492050
0.796874 -6.683245 -1.492134
0.721758 -6.053266 -1.491716
0.659181 -5.528437 -1.491833
0.606067 -5.082982 -1.492048
0.560064 -4.697165 -1.491500
0.520203 -4.362853 -1.491479
7.910864 -67.960838 -1.492920
3.970628 -34.110966 -1.499371
2.646242 -22.733397 -1.500085
1.981371 -17.021612 -1.499252
1.582890 -13.598328 -1.499314
1.310031 -11.254244 -1.491653
1.120371 -9.624909 -1.491417
0.978337 -8.404719 -1.491985
0.867290 -7.450738 -1.492050
0.778208 -6.685445 -1.492134
0.704852 -6.055258 -1.491716
0.643293 -5.526419 -1.490797
0.591870 -5.084654 -1.492048
0.546945 -4.698710 -1.491500
0.508017 -4.364288 -1.491479
7.721054 -67.982666 -1.492920
3.875358 -34.121922 -1.499371
2.582749 -22.740696 -1.500085
1.933831 -17.027079 -1.499252
1.544911 -13.602695 -1.499314
1.278598 -11.257857 -1.491653
1.093489 -9.628000 -1.491417
0.954863 -8.407418 -1.491985
0.846038 -7.449234 -1.491270
0.759095 -6.683711 -1.491269
0.687940 -6.057202 -1.491716
0.628294 -5.532032 -1.491833
0.577236 -5.082471 -1.490929
0.533822 -4.700219 -1.491500
0.495828 -4.365690 -1.491479
7.531185 -68.003960 -1.492920
3.780059 -34.132610 -1.499371
2.519236 -22.747820 -1.500085
1.886276 -17.032413 -1.499252
1.506920 -13.606956 -1.499314
1.247156 -11.261384 -1.491653
1.066599 -9.631017 -1.491417
0.930515 -8.402223 -1.490596
0.825665 -7.455466 -1.492050
0.740428 -6.685805 -1.491269
0.670595 -6.055238 -1.490765
0.612844 -5.533766 -1.491833
0.563464 -5.087881 -1.492048
0.520695 -4.701692 -1.491500
0.483635 -4.367057 -1.491479
7.334604 -67.963097 -1.491568
3.684729 -34.143032 -1.499371
2.455703 -22.754766 -1.500085
1.838706 -17.037615 -1.499252
1.468916 -13.611112 -1.499314
1.215704 -11.264823 -1.491653
1.039701 -9.633957 -1.491417
0.907893 -8.412621 -1.491985
0.804422 -7.453843 -1.491270
0.721755 -6.687847 -1.491269
0.653683 -6.057087 -1.490765
0.596974 -5.531614 -1.490797
0.549254 -5.089434 -1.492048
0.507154 -4.699335 -1.490298
0.471438 -4.368391 -1.491479
7.151269 -68.044968 -1.492920
3.589371 -34.153187 -1.499371
2.390483 -22.745659 -1.499039
1.791122 -17.042683 -1.499252
1.430902 -13.615160 -1.499314
1.184243 -11.268174 -1.491653
1.012794 -9.636823 -1.491417
0.883574 -8.407289 -1.490596
0.783604 -7.456060 -1.491270
0.703077 -6.689836 -1.491269
0.636766 -6.058889 -1.490765
0.581929 -5.537102 -1.491833
0.535039 -5.090948 -1.492048
0.494428 -4.704526 -1.491500
0.459238 -4.369691 -1.491479
6.954921 -68.002998 -1.491568
3.493986 -34.163078 -1.499371
2.326957 -22.752245 -1.499039
1.743523 -17.047617 -1.499252
1.392877 -13.619102 -1.499314
1.152772 -11.271437 -1.491653
0.985879 -9.639613 -1.491417
0.860895 -8.417560 -1.491985
0.763179 -7.462121 -1.492050
0.684790 -6.695658 -1.492134
0.620240 -6.064509 -1.491716
0.566071 -5.534862 -1.490797
0.520821 -5.092422 -1.492048
0.481289 -4.705889 -1.491500
0.447034 -4.370955 -1.491479
6.764997 -68.022156 -1.491568
3.398573 -34.172703 -1.499371
2.264993 -22.774540 -1.500085
1.695912 -17.052420 -1.499252
1.354840 -13.622939 -1.499314
1.121292 -11.274612 -1.491653
0.958957 -9.642329 -1.491417
0.836607 -8.412091 -1.490596
0.742338 -7.464223 -1.492050
0.666090 -6.697545 -1.492134
0.603303 -6.066217 -1.491716
0.550995 -5.540266 -1.491833
0.506599 -5.093857 -1.492048
0.468146 -4.707214 -1.491500
0.434826 -4.372187 -1.491479
6.575021 -68.040787 -1.491568
3.303133 -34.182056 -1.499371
2.201387 -22.780777 -1.500085
1.648287 -17.057089 -1.499252
1.316793 -13.626669 -1.499314
1.089804 -11.277699 -1.491653
0.932027 -9.644969 -1.491417
0.813870 -8.422236 -1.491985
0.721114 -7.462362 -1.491270
0.647009 -6.695491 -1.491269
0.585987 -6.064011 -1.490765
0.535150 -5.537937 -1.490797
0.492372 -5.095252 -1.492048
0.454999 -4.708503 -1.491500
0.422616 -4.373384 -1.491479
0.651974 -6.949521 2.540526
6.384993 -68.058876 -1.491568
3.207668 -34.191151 -1.499371
2.136272 -22.770941 -1.499039
1.600649 -17.061625 -1.499252
1.278736 -13.630293 -1.499314
1.058307 -11.280699 -1.491653
0.905091 -9.647534 -1.491417
0.789613 -8.416633 -1.490596
0.700640 -7.468253 -1.492050
0.628674 -6.701160 -1.492134
0.569051 -6.065623 -1.490765
0.520045 -5.543256 -1.491833
0.478142 -5.096606 -1.492048
0.441849 -4.709755 -1.491500
0.410401 -4.374547 -1.491479
0.632566 -6.951314 2.540526
6.194916 -68.076439 -1.491568
3.112177 -34.199974 -1.499371
2.072677 -22.776817 -1.499039
1.552998 -17.066029 -1.499252
1.240669 -13.633810 -1.499314
1.026802 -11.283609 -1.491653
0.878146 -9.650023 -1.491417
0.766820 -8.426650 -1.491985
0.679782 -7.470180 -1.492050
0.609605 -6.699000 -1.491269
0.552463 -6.071058 -1.491716
0.504213 -5.540839 -1.490797
0.463560 -5.094097 -1.490929
0.428696 -4.710971 -1.491500
0.398184 -4.375676 -1.491479
0.617114 -6.997985 2.556942
6.010235 -68.155220 -1.492920
3.016663 -34.208530 -1.499371
2.010468 -22.798420 -1.500085
1.505336 -17.070299 -1.499252
1.202592 -13.637221 -1.499314
0.995289 -11.286433 -1.491653
0.851196 -9.652439 -1.491417
0.742594 -8.420911 -1.490596
0.658919 -7.472049 -1.492050
0.590896 -6.700676 -1.491269
0.535507 -6.072577 -1.491716
0.488738 -5.542225 -1.490797
0.449670 -5.099197 -1.492048
0.415539 -4.712150 -1.491500
0.385963 -4.376771 -1.491479
0.591974 -6.934141 2.533001
5.819890 -68.171738 -1.492920
2.921124 -34.216820 -1.499371
1.946795 -22.803944 -1.500085
1.457662 -17.074434 -1.499252
1.164505 -13.640527 -1.499314
0.963768 -11.289168 -1.491653
0.824238 -9.654778 -1.491417
0.719076 -8.422953 -1.490596
0.638051 -7.473860 -1.492050
0.572182 -6.702300 -1.491269
0.518217 -6.070178 -1.490765
0.473589 -5.547419 -1.491833
0.435429 -5.100433 -1.492048
0.402378 -4.713292 -1.491500
0.373740 -4.377832 -1.491479
0.572918 -6.939513 2.534369
5.634600 -68.249504 -1.494273
2.825563 -34.224846 -1.499371
1.883109 -22.809292 -1.500085
1.409976 -17.078438 -1.499252
1.126410 -13.643725 -1.499314
0.932239 -11.291816 -1.491653
0.797274 -9.657043 -1.491417
0.695552 -8.424927 -1.490596
0.616855 -7.471703 -1.491270
0.553785 -6.707764 -1.492134
0.501584 -6.075473 -1.491716
0.458096 -5.548719 -1.491833
0.421185 -5.101629 -1.492048
0.389215 -4.714397 -1.491500
0.361513 -4.378859 -1.491479
0.553239 -6.937339 2.533001
5.443993 -68.264969 -1.494273
2.729980 -34.232605 -1.499371
1.818138 -22.798548 -1.499039
1.362279 -17.082310 -1.499252
1.088306 -13.646818 -1.499314
0.900703 -11.294374 -1.491653
0.770304 -9.659231 -1.491417
0.672023 -8.426837 -1.490596
0.595988 -7.473397 -1.491270
0.535052 -6.709285 -1.492134
0.484616 -6.076851 -1.491716
0.442292 -5.546125 -1.490797
0.406631 -5.098958 -1.490929
0.376049 -4.715466 -1.491500
0.349284 -4.379851 -1.491479
5.258252 -68.343704 -1.495669
2.636829 -34.271969 -1.500767
1.755691 -22.819454 -1.500085
1.314572 -17.086048 -1.499252
1.050193 -13.649804 -1.499314
0.869161 -11.296846 -1.491653
0.743328 -9.661345 -1.491417
0.649093 -8.436535 -1.491985
0.575417 -7.478943 -1.492050
0.516015 -6.706859 -1.491269
0.467645 -6.078180 -1.491716
0.426803 -5.547339 -1.490797
0.392686 -5.103902 -1.492048
0.362879 -4.716497 -1.491500
0.337052 -4.380809 -1.491479
0.524767 -7.079015 2.583620
5.067383 -68.358124 -1.495669
2.538751 -34.247314 -1.499371
1.691962 -22.824266 -1.500085
1.266855 -17.089653 -1.499252
1.012073 -13.652683 -1.499314
0.837611 -11.299230 -1.491653
0.716346 -9.663383 -1.491417
0.624949 -8.430459 -1.490596
0.554531 -7.480521 -1.492050
0.497284 -6.708273 -1.491269
0.450670 -6.079463 -1.491716
0.411596 -5.552362 -1.491833
0.378432 -5.104979 -1.492048
0.349707 -4.717493 -1.491500
0.324818 -4.381733 -1.491479
0.503125 -7.054208 2.574044
4.876475 -68.372002 -1.495669
2.445381 -34.286160 -1.500767
1.628219 -22.828903 -1.500085
1.219127 -17.093122 -1.499252
0.973944 -13.655457 -1.499314
0.806055 -11.301524 -1.491653
0.689358 -9.665345 -1.491417
0.601965 -8.440029 -1.491985
0.533639 -7.482040 -1.492050
0.478549 -6.709636 -1.491269
0.433692 -6.080697 -1.491716
0.395815 -5.549636 -1.490797
0.364175 -5.106016 -1.492048
0.336533 -4.718450 -1.491500
0.312580 -4.382624 -1.491479
0.481497 -7.027461 2.563783
4.685529 -68.385353 -1.495669
2.347443 -34.260960 -1.499371
1.564463 -22.833361 -1.500085
1.171391 -17.096460 -1.499252
0.936351 -13.666057 -1.500185
0.774493 -11.303731 -1.491653
0.662365 -9.667233 -1.491417
0.578395 -8.441677 -1.491985
0.512476 -7.479588 -1.491270
0.460078 -6.714842 -1.492134
0.416710 -6.081885 -1.491716
0.380316 -5.550720 -1.490797
0.349915 -5.107013 -1.492048
0.323355 -4.719372 -1.491500
0.300341 -4.383480 -1.491479
0.461871 -7.028777 2.563783
4.494546 -68.398178 -1.495669
2.253857 -34.299282 -1.500767
1.500696 -22.837641 -1.500085
1.123645 -17.099665 -1.499252
0.897664 -13.660683 -1.499314
0.742924 -11.305850 -1.491653
0.635367 -9.669044 -1.491417
0.554819 -8.443259 -1.491985
0.491844 -7.484904 -1.492050
0.441325 -6.716101 -1.492134
0.399470 -6.079147 -1.490765
0.364814 -5.551760 -1.490797
0.335652 -5.107970 -1.492048
0.310175 -4.720256 -1.491500
0.288099 -4.384301 -1.491479
0.453258 -7.205153 2.450655
4.307420 -68.472321 -1.497021
2.158069 -34.305447 -1.500767
1.436916 -22.841743 -1.500085
1.075890 -17.102736 -1.499252
0.859513 -13.663136 -1.499314
0.710852 -11.299964 -1.490609
0.608364 -9.670781 -1.491417
0.530745 -8.436913 -1.490596
0.470695 -7.482333 -1.491270
0.422569 -6.717307 -1.492134
0.382492 -6.080239 -1.490765
0.349310 -5.552757 -1.490797
0.321387 -5.108887 -1.492048
0.296993 -4.721104 -1.491500
0.275855 -4.385088 -1.491479
0.423173 -7.040628 2.567203
0.433136 -7.206391 2.450655
0.426811 -7.101155 2.073533
4.116196 -68.484077 -1.497021
2.062263 -34.311337 -1.500767
1.373126 -22.845667 -1.500085
1.028127 -17.105675 -1.499252
0.821356 -13.665483 -1.499314
0.679770 -11.309823 -1.491653
0.581357 -9.672442 -1.491417
0.507656 -8.446226 -1.491985
0.450034 -7.487534 -1.492050
0.403809 -6.718461 -1.492134
0.365745 -6.085162 -1.491716
0.333803 -5.553711 -1.490797
0.306889 -5.105931 -1.490929
0.283808 -4.721915 -1.491500
0.263608 -4.385841 -1.491479
0.403510 -7.041781 2.567203
0.413011 -7.207572 2.450655
3.924940 -68.495308 -1.497021
1.966442 -34.316959 -1.500767
1.309324 -22.849411 -1.500085
0.980356 -17.108479 -1.499252
0.783647 -13.675663 -1.500185
0.648185 -11.311676 -1.491653
0.554344 -9.674027 -1.491417
0.484068 -8.447611 -1.491985
0.428899 -7.484845 -1.491270
0.384823 -6.715663 -1.491269
0.348751 -6.086159 -1.491716
0.318293 -5.554621 -1.490797
0.292849 -5.110602 -1.492048
0.270621 -4.722689 -1.491500
0.251360 -4.386560 -1.491479
0.384049 -7.046634 2.568571
0.392882 -7.208697 2.450655
3.733653 -68.505997 -1.497021
1.870605 -34.322319 -1.500767
1.244644 -22.837036 -1.499039
0.932577 -17.111149 -1.499252
0.745022 -13.669857 -1.499314
0.616595 -11.313442 -1.491653
0.527328 -9.675538 -1.491417
0.460047 -8.441064 -1.490596
0.407996 -7.486013 -1.491270
0.366068 -6.716712 -1.491269
0.331754 -6.087110 -1.491716
0.302991 -5.559347 -1.491833
0.278368 -5.107565 -1.490929
0.257432 -4.723426 -1.491500
0.239110 -4.387245 -1.491479
0.364759 -7.055186 2.571307
0.381551 -7.379986 2.508513
0.369587 -7.148584 2.086405
3.542338 -68.516159 -1.497021
1.773103 -34.295479 -1.499371
1.181692 -22.856367 -1.500085
0.884791 -17.113686 -1.499252
0.706847 -13.671884 -1.499314
0.585000 -11.315120 -1.491653
0.500307 -9.676972 -1.491417
0.436881 -8.450182 -1.491985
0.387293 -7.491041 -1.492050
0.347311 -6.717707 -1.491269
0.314755 -6.088012 -1.491716
0.287266 -5.556313 -1.490797
0.264302 -5.112158 -1.492048
0.244241 -4.724127 -1.491500
0.226858 -4.387896 -1.491479
0.345239 -7.059932 2.572675
0.427159 -8.735147 2.757472
0.350186 -7.161096 2.089763
3.350995 -68.525787 -1.497021
1.678888 -34.332230 -1.500767
1.117081 -22.843632 -1.499039
0.836998 -17.116091 -1.499252
0.668666 -13.673805 -1.499314
0.553401 -11.316710 -1.491653
0.473282 -9.678332 -1.491417
0.412898 -8.443501 -1.490596
0.366372 -7.492094 -1.492050
0.328550 -6.718651 -1.491269
0.297563 -6.084987 -1.490765
0.271937 -5.560952 -1.491833
0.249838 -5.109041 -1.490929
0.231048 -4.724791 -1.491500
0.214604 -4.388512 -1.491479
0.325696 -7.064624 2.574044
0.397893 -8.630624 2.932814
0.401372 -8.706085 2.540288
3.159625 -68.534874 -1.497021
1.583009 -34.336784 -1.500767
1.053287 -22.846663 -1.499039
0.789198 -17.118361 -1.499252
0.630479 -13.675619 -1.499314
0.521797 -11.318211 -1.491653
0.446254 -9.679616 -1.491417
0.389680 -8.452491 -1.491985
0.345450 -7.493087 -1.492050
0.309787 -6.719543 -1.491269
0.280749 -6.089675 -1.491716
0.256230 -5.557830 -1.490797
0.235570 -5.109718 -1.490929
0.217853 -4.725417 -1.491500
0.202348 -4.389094 -1.491479
0.306293 -7.073016 2.576780
0.373135 -8.616565 2.927671
2.970912 -68.605362 -1.498374
1.487119 -34.341072 -1.500767
0.990175 -22.865465 -1.500085
0.741392 -17.120499 -1.499252
0.592632 -13.685271 -1.500185
0.490189 -11.319624 -1.491653
0.419222 -9.680824 -1.491417
0.365735 -8.445676 -1.490596
0.324524 -7.494023 -1.492050
0.291022 -6.720381 -1.491269
0.263743 -6.090436 -1.491716
0.240708 -5.558524 -1.490797
0.221467 -5.114193 -1.492048
0.204657 -4.726007 -1.491500
0.190091 -4.389642 -1.491479
0.287453 -7.096378 2.584988
0.303847 -7.501111 2.548372
0.283251 -6.992640 2.206579
0.357131 -8.816533 1.956181
0.364648 -9.002111 1.792100
2.776813 -68.551453 -1.497021
1.391216 -34.345089 -1.500767
0.925673 -22.852188 -1.499039
0.693581 -17.122501 -1.499252
0.554092 -13.678927 -1.499314
0.458578 -11.320949 -1.491653
0.392187 -9.681957 -1.491417
0.342468 -8.454535 -1.491985
0.303596 -7.494900 -1.492050
0.272254 -6.721168 -1.491269
0.246734 -6.091148 -1.491716
0.225185 -5.559174 -1.490797
0.207185 -5.114792 -1.492048
0.191459 -4.726560 -1.491500
0.177832 -4.390156 -1.491479
0.267777 -7.100909 2.586356
0.264298 -7.008654 2.211390
0.332510 -8.817496 1.956181
0.339805 -9.010935 1.793661
2.587710 -68.620888 -1.498374
1.294098 -34.316895 -1.499371
0.861856 -22.854685 -1.499039
0.645764 -17.124372 -1.499252
0.515892 -13.680421 -1.499314
0.426962 -11.322186 -1.491653
0.365149 -9.683015 -1.491417
0.318857 -8.455459 -1.491985
0.282665 -7.495718 -1.492050
0.253485 -6.721902 -1.491269
0.229577 -6.087931 -1.490765
0.209661 -5.559782 -1.490797
0.192756 -5.111513 -1.490929
0.178259 -4.727077 -1.491500
0.165572 -4.390635 -1.491479
0.247160 -7.079090 2.578148
0.260562 -7.462944 2.534872
0.252916 -7.243963 2.112709
0.314914 -9.019691 1.795221
0.272514 -7.805277 1.202079
2.393915 -68.565887 -1.497021
1.198264 -34.320374 -1.499371
0.798588 -22.872957 -1.500085
0.597942 -17.126108 -1.499252
0.477688 -13.681808 -1.499314
0.395344 -11.323333 -1.491653
0.338108 -9.683997 -1.491417
0.295245 -8.456316 -1.491985
0.261733 -7.496479 -1.492050
0.234713 -6.722584 -1.491269
0.212712 -6.092432 -1.491716
0.194269 -5.564207 -1.491833
0.178482 -5.112031 -1.490929
0.165058 -4.727556 -1.491500
0.153311 -4.391081 -1.491479
0.227029 -7.068482 2.574044
0.238991 -7.440928 2.527157
0.275729 -8.584748 2.708157
0.232440 -7.236964 2.110471
0.289726 -9.020535 1.795221
0.250717 -7.806008 1.202079
2.202437 -68.572304 -1.497021
1.102421 -34.323586 -1.499371
0.734713 -22.875099 -1.500085
0.550116 -17.127710 -1.499252
0.439480 -13.683088 -1.499314
0.363722 -11.324393 -1.491653
0.311064 -9.684903 -1.491417
0.271376 -8.449233 -1.490596
0.240672 -7.493259 -1.491270
0.215939 -6.723213 -1.491269
0.195698 -6.093001 -1.491716
0.178606 -5.560866 -1.490797
0.164206 -5.112509 -1.490929
0.151856 -4.727998 -1.491500
0.141048 -4.391492 -1.491479
0.206849 -7.054060 2.568571
0.217546 -7.418850 2.519443
0.250693 -8.549259 2.696730
0.211893 -7.226070 2.107113
0.264535 -9.021309 1.795221
0.228918 -7.806677 1.202079
2.012759 -68.640160 -1.498374
1.006569 -34.326530 -1.499371
0.670832 -22.877060 -1.500085
0.502285 -17.129181 -1.499252
0.401268 -13.684262 -1.499314
0.332098 -11.325365 -1.491653
0.284018 -9.685735 -1.491417
0.247781 -8.449959 -1.490596
0.219861 -7.497823 -1.492050
0.197164 -6.723790 -1.491269
0.178683 -6.093524 -1.491716
0.163077 -5.561343 -1.490797
0.149929 -5.112948 -1.490929
0.138653 -4.728404 -1.491500
0.128784 -4.391869 -1.491479
0.186801 -7.041459 2.563783
0.196175 -7.394816 2.511085
0.187413 -7.064557 2.228230
0.186468 -7.028933 2.049468
0.239550 -9.029855 1.796782
0.207117 -7.807286 1.202079
1.819432 -68.583534 -1.497021
0.910709 -34.329208 -1.499371
0.606946 -22.878843 -1.500085
0.454450 -17.130516 -1.499252
0.363054 -13.685329 -1.499314
0.300471 -11.326247 -1.491653
0.256970 -9.686489 -1.491417
0.224393 -8.458492 -1.491985
0.198923 -7.498408 -1.492050
0.178387 -6.724314 -1.491269
0.161563 -6.090115 -1.490765
0.147547 -5.561776 -1.490797
0.135752 -5.117186 -1.492048
0.125347 -4.724959 -1.490298
0.116520 -4.392211 -1.491479
0.166959 -7.034438 2.561047
0.174041 -7.332856 2.489870
0.167323 -7.049798 2.223419
0.167158 -7.042863 2.053385
0.214334 -9.030489 1.796782
0.185315 -7.807834 1.202079
1.629378 -68.650322 -1.498374
0.814842 -34.331615 -1.499371
0.543055 -22.880449 -1.500085
0.406612 -17.131718 -1.499252
0.325025 -13.694240 -1.500185
0.268841 -11.327042 -1.491653
0.229920 -9.687169 -1.491417
0.200585 -8.451210 -1.490596
0.177890 -7.495013 -1.491270
0.159702 -6.728690 -1.492134
0.144648 -6.094427 -1.491716
0.132015 -5.562167 -1.490797
0.121371 -5.113706 -1.490929
0.112243 -4.729105 -1.491500
0.104254 -4.392519 -1.491479
0.147078 -7.023603 2.556942
0.151859 -7.251895 2.462226
0.152069 -7.261916 2.290175
0.180092 -8.600162 2.507268
0.187842 -8.970258 1.784687
0.163511 -7.808321 1.202079
1.437667 -68.654610 -1.498374
0.718969 -34.333755 -1.499371
0.479160 -22.881878 -1.500085
0.358770 -17.132788 -1.499252
0.286617 -13.687144 -1.499314
0.237210 -11.327749 -1.491653
0.202868 -9.687774 -1.491417
0.177149 -8.459614 -1.491985
0.157042 -7.499403 -1.492050
0.140830 -6.725205 -1.491269
0.127629 -6.094807 -1.491716
0.116482 -5.562514 -1.490797
0.107091 -5.114025 -1.490929
0.099036 -4.729400 -1.491500
0.091988 -4.392793 -1.491479
0.127124 -7.005195 2.550102
0.131608 -7.252291 2.462226
0.156076 -8.600631 2.507268
0.162792 -8.970747 1.784687
1.244821 -68.596375 -1.497021
0.623090 -34.335632 -1.499371
0.415261 -22.883125 -1.500085
0.310926 -17.133722 -1.499252
0.248395 -13.687890 -1.499314
0.205576 -11.328367 -1.491653
0.175814 -9.688302 -1.491417
0.153525 -8.460075 -1.491985
0.136099 -7.499811 -1.492050
0.122049 -6.725572 -1.491269
0.110609 -6.095140 -1.491716
0.101019 -5.566680 -1.491833
0.092879 -5.118143 -1.492048
0.085829 -4.729658 -1.491500
0.079721 -4.393033 -1.491479
0.107157 -6.979215 2.540526
0.111355 -7.252630 2.462226
0.109401 -7.125333 2.246874
0.131822 -8.585674 2.502791
0.138072 -8.992741 1.788978
1.053262 -68.599579 -1.497021
0.527206 -34.337238 -1.499371
0.351359 -22.884195 -1.500085
0.263080 -17.134523 -1.499252
0.210171 -13.688531 -1.499314
0.173941 -11.328897 -1.491653
0.148759 -9.688755 -1.491417
0.129779 -8.452595 -1.490596
0.115156 -7.500163 -1.492050
0.103268 -6.725887 -1.491269
0.093588 -6.095425 -1.491716
0.085414 -5.563077 -1.490797
0.078586 -5.118383 -1.492048
0.072621 -4.729879 -1.491500
0.067453 -4.393239 -1.491479
0.091043 -7.248218 2.638343
0.091554 -7.288894 2.474441
0.089910 -7.158035 2.257098
0.107750 -8.578330 2.500552
0.090571 -7.210675 1.764580
0.113650 -9.048012 1.799904
0.861695 -68.602257 -1.497021
0.431318 -34.338577 -1.499371
0.287454 -22.885090 -1.500085
0.215231 -17.135191 -1.499252
0.171945 -13.689065 -1.499314
0.142305 -11.329339 -1.491653
0.121703 -9.689133 -1.491417
0.106274 -8.460801 -1.491985
0.094211 -7.500454 -1.492050
0.084485 -6.726149 -1.491269
0.076566 -6.095663 -1.491716
0.069879 -5.563294 -1.490797
0.064245 -5.114742 -1.490929
0.059413 -4.730063 -1.491500
0.055185 -4.393410 -1.491479
0.073771 -7.552354 2.563801
0.069828 -7.148722 2.254091
0.083720 -8.570917 2.498314
0.070398 -7.207015 1.763630
0.075548 -7.734312 1.363833
0.670122 -68.604393 -1.497021
0.335427 -34.339649 -1.499371
0.223547 -22.885803 -1.500085
0.167380 -17.135725 -1.499252
0.133718 -13.689491 -1.499314
0.110668 -11.329693 -1.491653
0.094646 -9.689435 -1.491417
0.082570 -8.453187 -1.490596
0.073266 -7.500689 -1.492050
0.065741 -6.730264 -1.492134
0.059506 -6.091968 -1.490765
0.054343 -5.563468 -1.490797
0.049999 -5.118742 -1.492048
0.046204 -4.730211 -1.491500
0.042916 -4.393547 -1.491479
0.050118 -7.185132 2.439083
0.049812 -7.141259 2.251685
0.059732 -8.563437 2.496075
0.051654 -7.405333 1.812117
0.061710 -8.846980 1.961376
0.478111 -68.544022 -1.495669
0.239533 -34.340450 -1.499371
0.159638 -22.886337 -1.500085
0.119529 -17.136127 -1.499252
0.095490 -13.689811 -1.499314
0.079029 -11.329957 -1.491653
0.067588 -9.689662 -1.491417
0.058964 -8.453385 -1.490596
0.052293 -7.496941 -1.491270
0.046946 -6.730422 -1.492134
0.042521 -6.095995 -1.491716
0.038834 -5.567462 -1.491833
0.035705 -5.118862 -1.492048
0.032995 -4.730321 -1.491500
0.030647 -4.393650 -1.491479
0.031297 -7.482577 2.540015
0.029822 -7.129926 2.248077
0.035795 -8.557810 2.494396
0.031056 -7.424874 1.816871
0.037005 -8.847116 1.961376
0.036454 -8.715472 1.536787
0.286961 -68.607063 -1.497021
0.143637 -34.340984 -1.499371
0.095661 -22.870728 -1.499039
0.071676 -17.136393 -1.499252
0.057261 -13.690024 -1.499314
0.047390 -11.330133 -1.491653
0.040529 -9.689813 -1.491417
0.035391 -8.461394 -1.491985
0.031374 -7.500981 -1.492050
0.028152 -6.730526 -1.492134
0.025498 -6.096090 -1.491716
0.023271 -5.563684 -1.490797
0.021395 -5.115101 -1.490929
0.019786 -4.730395 -1.491500
0.018378 -4.393718 -1.491479
0.009810 -7.056517 2.395367
0.009938 -7.149055 2.254091
0.011897 -8.557877 2.494396
0.012277 -8.831566 1.957913
0.095290 -68.545624 -1.495669
0.047740 -34.341251 -1.499371
0.031817 -22.886871 -1.500085
0.023823 -17.136526 -1.499252
0.019032 -13.690131 -1.499314
0.015751 -11.330222 -1.491653
0.013471 -9.689888 -1.491417
0.011752 -8.453583 -1.490596
0.010428 -7.501039 -1.492050
0.009357 -6.730578 -1.492134
0.008475 -6.096138 -1.491716
0.007735 -5.563728 -1.490797
0.007111 -5.115141 -1.490929
0.006576 -4.730432 -1.491500
0.006108 -4.393752 -1.491479
-0.010371 -7.395374 2.691699
-0.010015 -7.141740 2.424296
-0.010044 -7.162408 2.258301
-0.012374 -8.823755 1.956181
-0.096122 -68.545624 -1.495669
-0.048202 -34.373222 -1.500767
-0.032094 -22.886871 -1.500085
-0.024031 -17.136526 -1.499252
-0.019209 -13.698084 -1.500185
-0.015888 -11.330222 -1.491653
-0.013588 -9.689888 -1.491417
-0.011854 -8.453583 -1.490596
-0.010513 -7.497116 -1.491270
-0.009433 -6.726673 -1.491269
-0.008549 -6.096138 -1.491716
-0.007802 -5.563728 -1.490797
-0.007178 -5.118981 -1.492048
-0.006634 -4.730432 -1.491500
-0.006161 -4.393752 -1.491479
-0.030975 -7.384040 2.687594
-0.029743 -7.090550 2.406939
-0.037177 -8.862738 1.964839
-0.031429 -7.492351 1.321116
-0.287533 -68.545082 -1.495669
-0.144188 -34.372952 -1.500767
-0.096005 -22.886692 -1.500085
-0.071884 -17.136393 -1.499252
-0.057427 -13.690023 -1.499314
-0.047528 -11.330132 -1.491653
-0.040647 -9.689812 -1.491417
-0.035494 -8.461393 -1.491985
-0.031449 -7.497057 -1.491270
-0.028217 -6.726621 -1.491269
-0.025556 -6.092204 -1.490765
-0.023355 -5.567548 -1.491833
-0.021473 -5.118941 -1.492048
-0.019843 -4.730395 -1.491500
-0.018431 -4.393718 -1.491479
-0.050242 -7.190353 2.617138
-0.049610 -7.099909 2.410153
-0.054919 -7.859821 1.563454
-0.052516 -7.515869 1.325283
-0.479376 -68.605988 -1.497021
-0.239949 -34.340443 -1.499371
-0.159915 -22.886333 -1.500085
-0.119736 -17.136126 -1.499252
-0.095656 -13.689810 -1.499314
-0.079167 -11.329956 -1.491653
-0.067705 -9.689661 -1.491417
-0.059067 -8.453384 -1.490596
-0.052411 -7.500863 -1.492050
-0.047028 -6.730421 -1.492134
-0.042595 -6.095994 -1.491716
-0.038875 -5.563597 -1.490797
-0.035767 -5.118861 -1.492048
-0.033053 -4.730321 -1.491500
-0.030700 -4.393649 -1.491479
-0.070320 -7.190185 2.617138
-0.069510 -7.107318 2.412725
-0.076868 -7.859637 1.563454
-0.073696 -7.535389 1.328756
-0.670348 -68.542412 -1.495669
-0.336156 -34.371613 -1.500767
-0.223668 -22.869837 -1.499039
-0.167588 -17.135723 -1.499252
-0.133884 -13.689490 -1.499314
-0.110805 -11.329691 -1.491653
-0.094763 -9.689434 -1.491417
-0.082673 -8.453186 -1.490596
-0.073357 -7.500688 -1.492050
-0.065822 -6.730263 -1.492134
-0.059618 -6.095852 -1.491716
-0.054449 -5.567331 -1.491833
-0.050024 -5.114901 -1.490929
-0.046224 -4.726396 -1.490298
-0.042969 -4.393547 -1.491479
-0.090446 -7.193718 2.618506
-0.089047 -7.082478 2.404367
-0.092875 -7.386908 2.329267
-0.091732 -7.296027 1.955119
-0.091953 -7.313628 1.789775
-0.111030 -8.830876 1.957913
-0.107792 -8.573347 1.705480
-0.862527 -68.602242 -1.497021
-0.432137 -34.370537 -1.500767
-0.287731 -22.885084 -1.500085
-0.215439 -17.135189 -1.499252
-0.172111 -13.689062 -1.499314
-0.142442 -11.329337 -1.491653
-0.121820 -9.689131 -1.491417
-0.106377 -8.460800 -1.491985
-0.094302 -7.500453 -1.492050
-0.084616 -6.730053 -1.492134
-0.076640 -6.095662 -1.491716
-0.069995 -5.567157 -1.491833
-0.064307 -5.114741 -1.490929
-0.059470 -4.730062 -1.491500
-0.055238 -4.393409 -1.491479
-0.113017 -7.355046 2.677334
-0.116710 -7.595377 2.578587
-0.113385 -7.378991 2.326862
-0.112165 -7.299606 1.956154
-0.131822 -8.578897 1.706650
-1.054094 -68.599571 -1.497021
-0.528114 -34.369198 -1.500767
-0.351391 -22.868229 -1.499039
-0.263287 -17.134521 -1.499252
-0.210337 -13.688529 -1.499314
-0.174079 -11.328896 -1.491653
-0.148876 -9.688754 -1.491417
-0.130003 -8.460470 -1.491985
-0.115186 -7.496239 -1.491270
-0.103409 -6.729791 -1.492134
-0.093662 -6.095424 -1.491716
-0.085482 -5.563076 -1.490797
-0.078649 -5.118382 -1.492048
-0.072679 -4.729878 -1.491500
-0.067506 -4.393238 -1.491479
-0.131269 -7.228803 2.631503
-0.137197 -7.555257 2.565087
-0.145141 -7.992737 2.520516
-0.152380 -8.391373 2.446265
-0.133706 -7.363005 1.973237
-0.136796 -7.533150 1.498684
-0.137929 -7.595554 1.339522
-1.245653 -68.596359 -1.497021
-0.624087 -34.367588 -1.500767
-0.415538 -22.883120 -1.500085
-0.311134 -17.133718 -1.499252
-0.248561 -13.687887 -1.499314
-0.205714 -11.328365 -1.491653
-0.175931 -9.688300 -1.491417
-0.153485 -8.452197 -1.490596
-0.136119 -7.495887 -1.491270
-0.122202 -6.729475 -1.492134
-0.110683 -6.095138 -1.491716
-0.101016 -5.562816 -1.490797
-0.092941 -5.118142 -1.492048
-0.085887 -4.729656 -1.491500
-0.079774 -4.393032 -1.491479
-0.151455 -7.228408 2.631503
-0.157184 -7.501828 2.547086
-0.173534 -8.282167 2.611931
-0.152604 -7.283260 2.123343
-0.157180 -7.501666 2.010506
-0.183399 -8.753019 1.543733
-1.437201 -68.592613 -1.497021
-0.720055 -34.365711 -1.500767
-0.479437 -22.881870 -1.500085
-0.358978 -17.132782 -1.499252
-0.286783 -13.687140 -1.499314
-0.237347 -11.327745 -1.491653
-0.202985 -9.687771 -1.491417
-0.177087 -8.451735 -1.490596
-0.157133 -7.499400 -1.492050
-0.140993 -6.729108 -1.492134
-0.127703 -6.094806 -1.491716
-0.116550 -5.562512 -1.490797
-0.107233 -5.117863 -1.492048
-0.099094 -4.729398 -1.491500
-0.092041 -4.392792 -1.491479
-0.166776 -7.023162 2.556942
-0.172781 -7.276054 2.470584
-0.172942 -7.282806 2.123343
-0.177348 -7.468365 2.001707
-0.180682 -7.608749 1.513901
-0.185818 -7.825047 1.380156
-1.628739 -68.588333 -1.497021
-0.816017 -34.363567 -1.500767
-0.543332 -22.880444 -1.500085
-0.406820 -17.131714 -1.499252
-0.325003 -13.686286 -1.499314
-0.268979 -11.327040 -1.491653
-0.230037 -9.687166 -1.491417
-0.200874 -8.459085 -1.491985
-0.178074 -7.498932 -1.492050
-0.159691 -6.724784 -1.491269
-0.144630 -6.090541 -1.490765
-0.132174 -5.566028 -1.491833
-0.121524 -5.117544 -1.492048
-0.112300 -4.729103 -1.491500
-0.104307 -4.392518 -1.491479
-0.186288 -7.018911 2.555574
-0.190838 -7.190349 2.441654
-0.228896 -8.624287 2.720185
-0.199493 -7.516464 2.191621
-0.198100 -7.463978 2.000671
-0.202137 -7.616058 1.515462
-0.206049 -7.763460 1.369390
-1.820264 -68.583511 -1.497021
-0.911974 -34.361156 -1.500767
-0.607223 -22.878838 -1.500085
-0.454658 -17.130510 -1.499252
-0.363220 -13.685325 -1.499314
-0.300608 -11.326244 -1.491653
-0.257087 -9.686486 -1.491417
-0.224286 -8.450615 -1.490596
-0.199014 -7.498405 -1.492050
-0.178469 -6.724312 -1.491269
-0.161740 -6.093997 -1.491716
-0.147614 -5.561775 -1.490797
-0.135814 -5.117184 -1.492048
-0.125506 -4.728771 -1.491500
-0.116573 -4.392210 -1.491479
-0.205887 -7.018364 2.555574
-0.178929 -6.099394 2.071356
-0.220314 -7.510152 2.368960
-0.247153 -8.425045 2.258455
-0.214132 -7.299410 1.786923
-0.226107 -7.707619 1.533800
-0.251522 -8.573987 1.512476
-2.011774 -68.578171 -1.497021
-1.007923 -34.358475 -1.500767
-0.671109 -22.877052 -1.500085
-0.502493 -17.129173 -1.499252
-0.401434 -13.684258 -1.499314
-0.332235 -11.325361 -1.491653
-0.284136 -9.685731 -1.491417
-0.247884 -8.449956 -1.490596
-0.219952 -7.497821 -1.492050
-0.197246 -6.723787 -1.491269
-0.178756 -6.093522 -1.491716
-0.163145 -5.561341 -1.490797
-0.150103 -5.116785 -1.492048
-0.138710 -4.728402 -1.491500
-0.128838 -4.391867 -1.491479
-0.242807 -7.556868 2.751894
-0.196082 -6.102656 2.072642
-0.241408 -7.513320 2.370163
-0.268941 -8.370257 2.243961
-0.235513 -7.329851 1.794529
-0.248007 -7.718720 1.536141
-0.250304 -7.790199 1.199645
-2.205260 -68.634239 -1.498374
-1.103864 -34.355526 -1.500767
-0.734990 -22.875090 -1.500085
-0.550323 -17.127705 -1.499252
-0.439646 -13.683084 -1.499314
-0.363859 -11.324389 -1.491653
-0.311182 -9.684900 -1.491417
-0.271479 -8.449230 -1.490596
-0.240889 -7.497178 -1.492050
-0.216021 -6.723210 -1.491269
-0.195772 -6.092999 -1.491716
-0.178798 -5.564726 -1.491833
-0.164391 -5.116346 -1.492048
-0.151913 -4.727996 -1.491500
-0.141101 -4.391490 -1.491479
-0.261481 -7.486666 2.726585
-0.243465 -6.970838 2.367723
-0.260789 -7.466866 2.355729
-0.260487 -7.458196 1.999636
-0.255844 -7.325282 1.793578
-0.269834 -7.725839 1.537702
-0.267572 -7.661073 1.351678
-0.271919 -7.785519 1.199037
-2.394747 -68.565865 -1.497021
-1.199796 -34.352310 -1.500767
-0.798866 -22.872948 -1.500085
-0.598150 -17.126101 -1.499252
-0.477854 -13.681803 -1.499314
-0.395481 -11.323328 -1.491653
-0.338225 -9.683993 -1.491417
-0.295347 -8.456312 -1.491985
-0.261687 -7.492555 -1.491270
-0.234931 -6.726484 -1.492134
-0.212786 -6.092429 -1.491716
-0.194202 -5.560343 -1.490797
-0.178544 -5.112029 -1.490929
-0.165116 -4.727554 -1.491500
-0.153364 -4.391079 -1.491479
-0.264817 -7.020149 2.556942
-0.254863 -6.756276 2.295078
-0.260500 -6.905722 2.178914
-0.327950 -8.693789 2.535811
-0.317724 -8.422679 2.258455
-0.275860 -7.312891 1.790726
-0.278739 -7.389211 1.639314
-0.291851 -7.736816 1.540043
-2.588543 -68.620850 -1.498374
-1.295720 -34.348824 -1.500767
-0.862735 -22.870628 -1.500085
-0.645972 -17.124363 -1.499252
-0.516358 -13.688361 -1.500185
-0.427100 -11.322180 -1.491653
-0.365266 -9.683011 -1.491417
-0.318960 -8.455455 -1.491985
-0.282608 -7.491795 -1.491270
-0.253713 -6.725802 -1.492134
-0.229798 -6.091811 -1.491716
-0.209728 -5.559779 -1.490797
-0.192963 -5.115348 -1.492048
-0.178317 -4.727074 -1.491500
-0.165625 -4.390634 -1.491479
-0.284267 -7.015627 2.555574
-0.274342 -6.770677 2.300221
-0.280478 -6.922121 2.184327
-0.352848 -8.708188 2.540288
-0.341242 -8.421760 2.258455
-0.305797 -7.546964 1.848246
-0.299688 -7.396208 1.641045
-0.312820 -7.720292 1.536922
-0.315076 -7.775978 1.197820
-2.777645 -68.551414 -1.497021
-1.391633 -34.345074 -1.500767
-0.926597 -22.868130 -1.500085
-0.693789 -17.122494 -1.499252
-0.554258 -13.678921 -1.499314
-0.458715 -11.320944 -1.491653
-0.392304 -9.681952 -1.491417
-0.342251 -8.446660 -1.490596
-0.303687 -7.494896 -1.492050
-0.272494 -6.725067 -1.492134
-0.246651 -6.087263 -1.490765
-0.225409 -5.563033 -1.491833
-0.207247 -5.114789 -1.492048
-0.191516 -4.726558 -1.491500
-0.177885 -4.390154 -1.491479
-0.325573 -7.516131 2.738213
-0.297182 -6.860704 2.331079
-0.326139 -7.529211 2.376177
-0.293405 -6.773520 1.976153
-0.322456 -7.444171 1.996530
-0.316361 -7.303472 1.788824
-0.321270 -7.416800 1.645807
-2.969062 -68.543396 -1.497021
-1.487535 -34.341053 -1.500767
-0.990452 -22.865452 -1.500085
-0.741600 -17.120489 -1.499252
-0.592454 -13.677319 -1.499314
-0.490327 -11.319617 -1.491653
-0.419339 -9.680820 -1.491417
-0.365837 -8.445671 -1.490596
-0.324615 -7.494019 -1.492050
-0.291103 -6.720378 -1.491269
-0.263816 -6.090432 -1.491716
-0.240776 -5.558521 -1.490797
-0.221529 -5.114191 -1.492048
-0.204714 -4.726005 -1.491500
-0.190144 -4.389640 -1.491479
-0.345261 -7.487032 2.727953
-0.313286 -6.793633 2.308578
-0.321594 -6.973797 2.201166
-0.336466 -7.296306 2.128939
-0.343598 -7.450962 1.998601
-0.335412 -7.273451 1.781694
-0.412769 -8.950933 1.986483
-3.160456 -68.534836 -1.497021
-1.583426 -34.336765 -1.500767
-1.054299 -22.862598 -1.500085
-0.789406 -17.118351 -1.499252
-0.630645 -13.675611 -1.499314
-0.521934 -11.318205 -1.491653
-0.446371 -9.679611 -1.491417
-0.389420 -8.444617 -1.490596
-0.345540 -7.493083 -1.492050
-0.309869 -6.719539 -1.491269
-0.280644 -6.085791 -1.490765
-0.256297 -5.557827 -1.490797
-0.235632 -5.109716 -1.490929
-0.217911 -4.725415 -1.491500
-0.202401 -4.389092 -1.491479
-0.339632 -6.943545 2.530265
-0.300520 -6.143913 2.088071
-0.341905 -6.990018 2.206579
-0.408902 -8.359720 2.439549
-0.414708 -8.478420 2.274502
-0.355722 -7.272486 1.781694
-0.439670 -8.988750 1.995141
-0.375280 -7.672338 1.527948
-3.351825 -68.525742 -1.497021
-1.679304 -34.332211 -1.500767
-1.117358 -22.843618 -1.499039
-0.837205 -17.116079 -1.499252
-0.668832 -13.673797 -1.499314
-0.553538 -11.316703 -1.491653
-0.473786 -9.686223 -1.492634
-0.413385 -8.451365 -1.491985
-0.366272 -7.488171 -1.491270
-0.328822 -6.722548 -1.492134
-0.297827 -6.088864 -1.491716
-0.272005 -5.560949 -1.491833
-0.250088 -5.112874 -1.492048
-0.231105 -4.724788 -1.491500
-0.214657 -4.388510 -1.491479
-0.390468 -7.550678 2.751894
-0.316697 -6.124136 2.081642
-0.362212 -7.004276 2.211390
-0.365608 -7.069961 2.063459
-0.442672 -8.560188 2.296760
-0.375427 -7.259824 1.778841
-0.386215 -7.468449 1.657928
-3.539968 -68.454216 -1.495669
-1.775170 -34.327385 -1.500767
-1.181969 -22.856352 -1.500085
-0.884998 -17.113676 -1.499252
-0.707013 -13.671876 -1.499314
-0.585138 -11.315113 -1.491653
-0.500424 -9.676967 -1.491417
-0.436983 -8.450177 -1.491985
-0.387181 -7.487119 -1.491270
-0.347594 -6.721604 -1.492134
-0.314829 -6.088009 -1.491716
-0.287333 -5.556309 -1.490797
-0.264364 -5.112155 -1.492048
-0.244298 -4.724124 -1.491500
-0.226911 -4.387893 -1.491479
-0.412779 -7.572077 2.760103
-0.375651 -6.890996 2.342651
-0.329026 -6.035697 1.905873
-0.368836 -6.765987 1.975033
-0.466995 -8.566634 2.298831
-0.410291 -7.526440 1.844443
-0.452028 -8.292063 1.841036
-0.417480 -7.658314 1.180478
-3.731110 -68.444061 -1.495669
-1.869281 -34.290371 -1.499371
-1.245790 -22.852962 -1.500085
-0.932784 -17.111137 -1.499252
-0.745188 -13.669848 -1.499314
-0.616732 -11.313436 -1.491653
-0.527445 -9.675531 -1.491417
-0.460150 -8.441058 -1.490596
-0.408087 -7.486009 -1.491270
-0.366150 -6.716707 -1.491269
-0.331828 -6.087106 -1.491716
-0.302848 -5.555485 -1.490797
-0.278639 -5.111397 -1.492048
-0.257489 -4.723423 -1.491500
-0.239163 -4.387242 -1.491479
-0.432201 -7.540874 2.749158
-0.419058 -7.311559 2.486013
-0.404380 -7.055464 2.228230
-0.387729 -6.764931 1.975033
-0.490916 -8.565297 2.298831
-0.431307 -7.525265 1.844443
-0.475628 -8.298566 1.842767
-0.442031 -7.712377 1.188997
-3.918563 -68.369499 -1.494273
-1.965028 -34.285019 -1.499371
-1.309601 -22.849396 -1.500085
-0.980563 -17.108467 -1.499252
-0.783358 -13.667714 -1.499314
-0.648323 -11.311669 -1.491653
-0.554462 -9.674022 -1.491417
-0.484170 -8.447605 -1.491985
-0.428990 -7.484840 -1.491270
-0.384905 -6.715659 -1.491269
-0.348825 -6.086155 -1.491716
-0.318360 -5.554618 -1.490797
-0.292911 -5.110599 -1.492048
-0.270678 -4.722686 -1.491500
-0.251413 -4.386558 -1.491479
-0.416040 -6.920558 2.523425
-0.365490 -6.079679 2.067498
-0.399014 -6.637331 2.096521
-0.406387 -6.759988 1.973914
-0.514832 -8.563891 2.298831
-0.456866 -7.599659 1.862982
-0.453538 -7.544311 1.503366
-0.463199 -7.705012 1.361055
-0.464633 -7.728871 1.191735
-4.113307 -68.422157 -1.495669
-2.062679 -34.311310 -1.500767
-1.373403 -22.845648 -1.500085
-1.028334 -17.105661 -1.499252
-0.821999 -13.673411 -1.500185
-0.679908 -11.309814 -1.491653
-0.581474 -9.672435 -1.491417
-0.507758 -8.446219 -1.491985
-0.449889 -7.483613 -1.491270
-0.403891 -6.718456 -1.492134
-0.365586 -6.081278 -1.490765
-0.333870 -5.553707 -1.490797
-0.307181 -5.109761 -1.492048
-0.283865 -4.721911 -1.491500
-0.263662 -4.385838 -1.491479
-0.438315 -6.966262 2.540526
-0.390196 -6.201492 2.109286
-0.381973 -6.070802 1.917902
-0.425263 -6.758827 1.973914
-0.479550 -7.621621 1.868687
-0.522948 -8.311370 1.846230
-0.485456 -7.715484 1.363139
-0.486711 -7.735435 1.192952
-4.300340 -68.346542 -1.494273
-2.156477 -34.273510 -1.499371
-1.437193 -22.841724 -1.500085
-1.076097 -17.102722 -1.499252
-0.859679 -13.663126 -1.499314
-0.711487 -11.307872 -1.491653
-0.608482 -9.670774 -1.491417
-0.530847 -8.436907 -1.490596
-0.470785 -7.482327 -1.491270
-0.422650 -6.717302 -1.492134
-0.382810 -6.084112 -1.491716
-0.349377 -5.552753 -1.490797
-0.321449 -5.108883 -1.492048
-0.297050 -4.721100 -1.491500
-0.275908 -4.385085 -1.491479
-0.471078 -7.167547 2.614402
-0.409126 -6.224946 2.117643
-0.480235 -7.306875 2.308819
-0.444135 -6.757613 1.973914
-0.494843 -7.529142 1.846344
-0.547180 -8.325464 1.849693
-0.568221 -8.645605 1.723428
-0.508549 -7.737683 1.367306
-0.509088 -7.745880 1.194777
-4.491179 -68.334274 -1.494273
-2.252177 -34.267353 -1.499371
-1.500973 -22.837622 -1.500085
-1.123852 -17.099651 -1.499252
-0.897830 -13.660672 -1.499314
-0.743061 -11.305840 -1.491653
-0.635485 -9.669037 -1.491417
-0.554405 -8.435391 -1.490596
-0.491678 -7.480984 -1.491270
-0.441150 -6.712199 -1.491269
-0.399798 -6.083020 -1.491716
-0.364882 -5.551756 -1.490797
-0.335714 -5.107966 -1.492048
-0.310232 -4.720253 -1.491500
-0.288152 -4.384297 -1.491479
-0.482482 -7.040579 2.568571
-0.461467 -6.733925 2.291220
-0.498681 -7.276960 2.299798
-0.463004 -6.756346 1.973914
-0.571650 -8.341749 2.046000
-0.570961 -8.331697 1.851425
-0.695089 -10.143031 2.022306
-0.531256 -7.752317 1.195994
-0.529796 -7.731002 1.020193
-4.677746 -68.259621 -1.492920
-2.347858 -34.260929 -1.499371
-1.564740 -22.833342 -1.500085
-1.171598 -17.096445 -1.499252
-0.935973 -13.658112 -1.499314
-0.774630 -11.303721 -1.491653
-0.662483 -9.667225 -1.491417
-0.578497 -8.441669 -1.491985
-0.512566 -7.479581 -1.491270
-0.459892 -6.710941 -1.491269
-0.416784 -6.081880 -1.491716
-0.380648 -5.554570 -1.491833
-0.349714 -5.103177 -1.490929
-0.323152 -4.715562 -1.490298
-0.300394 -4.383476 -1.491479
-0.505885 -7.091694 2.587724
-0.441864 -6.194228 2.108000
-0.486562 -6.820818 2.156061
-0.481596 -6.751196 1.972795
-0.513547 -7.199104 1.933896
-0.595494 -8.347871 2.047902
-0.593113 -8.314487 1.847962
-0.722852 -10.133224 2.020746
-0.553437 -7.758297 1.371474
-0.553465 -7.758689 1.197211
-4.868341 -68.246292 -1.492920
-2.443522 -34.254238 -1.499371
-1.628496 -22.828882 -1.500085
-1.219335 -17.093107 -1.499252
-0.974109 -13.655444 -1.499314
-0.806192 -11.301514 -1.491653
-0.689476 -9.665337 -1.491417
-0.602068 -8.440022 -1.491985
-0.533451 -7.478120 -1.491270
-0.478909 -6.713525 -1.492134
-0.433765 -6.080692 -1.491716
-0.395882 -5.549631 -1.490797
-0.364237 -5.106011 -1.492048
-0.336590 -4.718446 -1.491500
-0.312634 -4.382619 -1.491479
-0.526798 -7.105247 2.593197
-0.460000 -6.204302 2.111857
-0.463579 -6.252573 1.976840
-0.530686 -7.157687 2.092002
-0.534506 -7.209202 1.937002
-0.670945 -9.049439 2.220462
-0.639428 -8.624359 1.917222
-0.575974 -7.768507 1.373557
-0.576006 -7.768942 1.199037
-5.054315 -68.170616 -1.491568
-2.541530 -34.279167 -1.500767
-1.691058 -22.808325 -1.499039
-1.267062 -17.089638 -1.499252
-1.012826 -13.660603 -1.500185
-0.837748 -11.299219 -1.491653
-0.716463 -9.663374 -1.491417
-0.625634 -8.438308 -1.491985
-0.554331 -7.476602 -1.491270
-0.497654 -6.712162 -1.492134
-0.450744 -6.079457 -1.491716
-0.411664 -5.552358 -1.491833
-0.378494 -5.104974 -1.492048
-0.349765 -4.717488 -1.491500
-0.324871 -4.381730 -1.491479
-0.547647 -7.116865 2.597985
-0.477033 -6.199216 2.110572
-0.474745 -6.169477 1.950979
-0.640977 -8.329729 2.435072
-0.475783 -6.182965 1.661618
-0.689207 -8.956493 2.198119
-0.587106 -7.629653 1.696454
-0.776575 -10.091869 2.013332
-0.598001 -7.771245 1.199645
-5.244659 -68.156235 -1.491568
-2.634791 -34.240059 -1.499371
-1.755968 -22.819431 -1.500085
-1.314779 -17.086031 -1.499252
-1.050359 -13.649791 -1.499314
-0.869298 -11.296835 -1.491653
-0.743445 -9.661335 -1.491417
-0.648591 -8.428673 -1.490596
-0.575207 -7.475025 -1.491270
-0.516096 -6.706852 -1.491269
-0.467421 -6.074300 -1.490765
-0.427167 -5.551186 -1.491833
-0.392748 -5.103898 -1.492048
-0.362937 -4.716493 -1.491500
-0.337105 -4.380805 -1.491479
-0.604576 -7.579920 2.767627
-0.494342 -6.197861 2.110572
-0.491061 -6.156719 1.947371
-0.699500 -8.770046 2.564353
-0.673284 -8.441353 2.072146
-0.803505 -10.074019 2.010211
-0.686846 -8.611386 1.523242
-0.620643 -7.781367 1.201471
-5.434964 -68.141327 -1.491568
-2.730396 -34.232571 -1.499371
-1.818414 -22.798527 -1.499039
-1.362487 -17.082293 -1.499252
-1.088471 -13.646806 -1.499314
-0.900840 -11.294364 -1.491653
-0.770421 -9.659222 -1.491417
-0.672125 -8.426829 -1.490596
-0.596079 -7.473390 -1.491270
-0.535133 -6.709278 -1.492134
-0.484690 -6.076845 -1.491716
-0.442667 -5.549972 -1.491833
-0.406999 -5.102781 -1.492048
-0.376106 -4.715461 -1.491500
-0.349337 -4.379847 -1.491479
-0.590788 -7.154902 2.613034
-0.557935 -6.757024 2.301507
-0.692842 -8.390858 2.654631
-0.555078 -6.722433 1.966079
-0.774839 -9.383909 2.522968
-0.693017 -8.392973 2.060737
-0.625691 -7.577606 1.685632
-0.638899 -7.737564 1.544335
-0.642816 -7.785001 1.377378
-5.630326 -68.187660 -1.492920
-2.825979 -34.224808 -1.499371
-1.882071 -22.793358 -1.499039
-1.410183 -17.078423 -1.499252
-1.126576 -13.643711 -1.499314
-0.932376 -11.291804 -1.491653
-0.797391 -9.657032 -1.491417
-0.695654 -8.424918 -1.490596
-0.616946 -7.471695 -1.491270
-0.553545 -6.703865 -1.491269
-0.501658 -6.075467 -1.491716
-0.458163 -5.548714 -1.491833
-0.421246 -5.101624 -1.492048
-0.389272 -4.714392 -1.491500
-0.361567 -4.378854 -1.491479
-0.603890 -7.072704 2.583620
-0.531366 -6.223308 2.120215
-0.711078 -8.328074 2.635386
-0.632818 -7.411500 2.168115
-0.715294 -8.377456 2.057409
-0.716949 -8.396835 1.868307
-0.724751 -8.488217 1.694555
-0.665558 -7.794950 1.379461
-5.815443 -68.109909 -1.491568
-2.921539 -34.216785 -1.499371
-1.945714 -22.788013 -1.499039
-1.457869 -17.074417 -1.499252
-1.164671 -13.640513 -1.499314
-0.963904 -11.289157 -1.491653
-0.824355 -9.654768 -1.491417
-0.719848 -8.430793 -1.491985
-0.637808 -7.469944 -1.491270
-0.572263 -6.702293 -1.491269
-0.518621 -6.074043 -1.491716
-0.473327 -5.543563 -1.490797
-0.435164 -5.096601 -1.490929
-0.402436 -4.713287 -1.491500
-0.373793 -4.377828 -1.491479
-0.620336 -7.033548 2.569939
-0.550739 -6.244438 2.127929
-0.732488 -8.305155 2.628770
-0.653512 -7.409704 2.168115
-0.776575 -8.805034 2.162942
-0.667658 -7.570103 1.684766
-0.686239 -7.780771 1.553699
-0.688015 -7.800910 1.380851
-6.005616 -68.093399 -1.491568
-3.017077 -34.208496 -1.499371
-2.009341 -22.782492 -1.499039
-1.505543 -17.070280 -1.499252
-1.202757 -13.637208 -1.499314
-0.995425 -11.286421 -1.491653
-0.851313 -9.652429 -1.491417
-0.743388 -8.428750 -1.491985
-0.658665 -7.468134 -1.491270
-0.590977 -6.700669 -1.491269
-0.535581 -6.072571 -1.491716
-0.488806 -5.542220 -1.490797
-0.449732 -5.099192 -1.492048
-0.415261 -4.708345 -1.490298
-0.386017 -4.376767 -1.491479
-0.612379 -6.728581 2.459125
-0.594952 -6.537102 2.228218
-0.566541 -6.224934 1.970826
-0.674549 -7.411674 2.169235
-0.699339 -7.684058 2.067447
-0.772987 -8.493281 2.086882
-0.688795 -7.568209 1.684766
-0.771435 -8.476223 1.692994
-0.776741 -8.534524 1.511087
-6.201360 -68.138100 -1.492920
-3.112592 -34.199936 -1.499371
-2.072953 -22.776793 -1.499039
-1.553205 -17.066010 -1.499252
-1.240834 -13.633796 -1.499314
-1.026939 -11.283598 -1.491653
-0.878263 -9.650014 -1.491417
-0.766922 -8.426641 -1.491985
-0.679873 -7.470172 -1.492050
-0.609686 -6.698993 -1.491269
-0.552536 -6.071052 -1.491716
-0.504630 -5.544681 -1.491833
-0.463970 -5.097917 -1.492048
-0.428753 -4.710966 -1.491500
-0.398237 -4.375672 -1.491479
-0.590083 -6.288991 2.299059
-0.643989 -6.863505 2.340079
-0.585704 -6.242318 1.976840
-0.625288 -6.664197 1.950968
-0.881772 -9.397751 2.529180
-0.729372 -7.773505 1.910519
-0.709562 -7.562367 1.683900
-0.834499 -8.893929 1.776883
-0.798362 -8.508790 1.506919
-6.391609 -68.120514 -1.492920
-3.208082 -34.191109 -1.499371
-2.136549 -22.770914 -1.499039
-1.600856 -17.061605 -1.499252
-1.279644 -13.638195 -1.500185
-1.058444 -11.280685 -1.491653
-0.905207 -9.647523 -1.491417
-0.789715 -8.416623 -1.490596
-0.700730 -7.468244 -1.492050
-0.628755 -6.701152 -1.492134
-0.569487 -6.069485 -1.491716
-0.520112 -5.543250 -1.491833
-0.478204 -5.096601 -1.492048
-0.441906 -4.709750 -1.491500
-0.410454 -4.374542 -1.491479
-0.611439 -6.326603 2.313424
-0.625805 -6.475240 2.208289
-0.605152 -6.261542 1.983455
-0.714639 -7.394413 2.165317
-0.742243 -7.680032 2.067447
-0.751824 -7.779173 1.912421
-0.732555 -7.579792 1.688229
-0.860842 -8.907184 1.780004
-0.820036 -8.484962 1.503099
-6.581810 -68.102409 -1.492920
-3.303547 -34.182018 -1.499371
-2.200127 -22.764860 -1.499039
-1.650027 -17.072933 -1.500647
-1.316958 -13.626653 -1.499314
-1.089941 -11.277686 -1.491653
-0.932144 -9.644958 -1.491417
-0.813215 -8.414385 -1.490596
-0.721582 -7.466259 -1.492050
-0.647090 -6.695483 -1.491269
-0.586434 -6.067871 -1.491716
-0.535218 -5.537930 -1.490797
-0.492434 -5.095245 -1.492048
-0.455056 -4.708498 -1.491500
-0.422669 -4.373379 -1.491479
-0.634312 -6.377235 2.332577
-0.630388 -6.337779 2.162002
-0.624145 -6.275013 1.988267
-0.620878 -6.242165 1.828403
-0.763686 -7.677929 2.067447
-0.739703 -7.436810 1.828755
-0.763188 -7.672925 1.709440
-0.840607 -8.451281 1.497542
-6.771958 -68.083763 -1.492920
-3.398987 -34.172661 -1.499371
-2.265269 -22.774513 -1.500085
-1.696118 -17.052399 -1.499252
-1.355005 -13.622923 -1.499314
-1.121429 -11.274599 -1.491653
-0.959074 -9.642318 -1.491417
-0.836708 -8.412082 -1.490596
-0.742429 -7.464214 -1.492050
-0.665785 -6.693650 -1.491269
-0.603376 -6.066210 -1.491716
-0.550680 -5.536414 -1.490797
-0.506660 -5.093851 -1.492048
-0.468203 -4.707209 -1.491500
-0.434880 -4.372182 -1.491479
-0.653457 -6.388527 2.337366
-0.750798 -7.340181 2.504656
-0.643606 -6.292221 1.994281
-0.639869 -6.255687 1.832880
-0.761653 -7.446311 1.831608
-0.777260 -7.598892 1.693424
-0.921552 -9.009563 1.801464
-0.833740 -8.151073 1.444753
-6.968360 -68.126244 -1.494273
-3.494400 -34.163036 -1.499371
-2.327233 -22.752216 -1.499039
-1.743730 -17.047596 -1.499252
-1.393851 -13.626998 -1.500185
-1.152909 -11.271423 -1.491653
-0.985996 -9.639603 -1.491417
-0.860196 -8.409713 -1.490596
-0.763270 -7.462112 -1.492050
-0.684474 -6.691765 -1.491269
-0.619918 -6.060636 -1.490765
-0.566531 -5.538699 -1.491833
-0.520883 -5.092416 -1.492048
-0.481346 -4.705883 -1.491500
-0.447087 -4.370950 -1.491479
-0.717854 -6.829651 2.499483
-0.669535 -6.369946 2.174217
-0.664365 -6.320751 2.003904
-0.659744 -6.276791 1.839596
-0.807362 -7.681229 2.069517
-0.782444 -7.444154 1.831608
-0.793578 -7.550087 1.683035
-0.939531 -8.938676 1.787808
-7.158574 -68.106522 -1.494273
-3.589786 -34.153141 -1.499371
-2.392428 -22.761507 -1.500085
-1.791328 -17.042660 -1.499252
-1.431067 -13.615142 -1.499314
-1.184379 -11.268159 -1.491653
-1.012911 -9.636811 -1.491417
